ply
format ascii 1.0
element vertex 1284
property float x
property float y
property float z
property uchar red
property uchar green
property uchar blue
end_header
59.9851 25.8203 12.1461 255 255 255
19.9005 66.1186 -91.6526 255 255 255
60.2254 25.2187 11.326 255 255 255
-0.561247 65.3756 -80.667 255 255 255
57.8228 26.5679 6.78613 255 255 255
57.7428 26.5398 6.85958 255 255 255
60.4358 24.1447 12.2163 255 255 255
60.4358 24.1447 12.2163 255 255 255
18.0233 64.3244 -91.5565 255 255 255
59.5619 24.5132 9.87166 255 255 255
60.007 23.5921 10.7163 255 255 255
63.077 34.5371 -26.2271 255 255 255
82.1394 57.549 -111.391 255 255 255
63.3868 33.9624 -25.801 255 255 255
43.2935 63.6442 -110.185 255 255 255
-21.1413 62.1665 -68.7432 255 255 255
-21.1413 62.1665 -68.7432 255 255 255
57.9631 24.0248 6.28576 255 255 255
-4.28774 61.526 -79.7686 255 255 255
36.1561 61.4626 -105.151 255 255 255
-18.5529 60.3926 -72.2941 255 255 255
60.9215 33.9246 -33.0169 255 255 255
-17.3899 59.6529 -72.6625 255 255 255
-17.3899 59.6529 -72.6625 255 255 255
55.7497 23.9322 -0.944507 255 255 255
55.5851 23.9676 -2.23132 255 255 255
-18.7921 57.7793 -73.2352 255 255 255
-22.8117 56.766 -71.5662 255 255 255
-18.1316 54.9964 -69.6965 255 255 255
-8.48585 54.9189 -81.6843 255 255 255
-6.44102 54.9562 -84.4447 255 255 255
54.8224 20.3473 -4.6076 255 255 255
-9.5501 54.6116 -82.9192 255 255 255
57.5315 18.3367 0.622791 255 255 255
56.4265 31.1482 -45.2847 255 255 255
62.1753 14.6399 8.94919 255 255 255
59.436 15.7906 3.59025 255 255 255
60.0146 15.6025 3.54241 255 255 255
60.1866 14.6524 4.66981 255 255 255
61.0744 14.3889 5.00565 255 255 255
59.1356 26.7832 -42.3566 255 255 255
61.0444 24.4108 -36.951 255 255 255
59.6597 13.8602 2.92523 255 255 255
55.7871 16.9868 -6.36673 255 255 255
59.2938 14.1884 0.517671 255 255 255
59.3414 13.236 2.92373 255 255 255
58.0553 25.7679 -47.4955 255 255 255
58.0553 25.7679 -47.4955 255 255 255
64.7105 9.13519 11.8114 255 255 255
-3.74907 48.7253 -90.2342 255 255 255
60.9896 11.4758 4.03533 255 255 255
64.4438 19.9598 -32.4801 255 255 255
56.4025 25.9251 -51.0808 255 255 255
57.2039 25.1542 -49.7941 255 255 255
-15.9802 47.3454 -82.0379 255 255 255
23.5338 37.8489 -83.5974 255 255 255
-1.07377 45.3194 -93.6567 255 255 255
57.6525 21.5638 -50.7805 255 255 255
22.5904 36.4822 -82.7253 255 255 255
60.4661 8.55985 -0.135075 255 255 255
60.905 8.10026 0.175892 255 255 255
18.3295 36.8615 -84.4852 255 255 255
18.3295 36.8615 -84.4852 255 255 255
-24.8107 44.5602 -79.5096 255 255 255
-25.5093 44.6477 -79.7626 255 255 255
-25.5698 44.5847 -79.4916 255 255 255
57.0563 20.5465 -52.8594 255 255 255
62.3744 6.05873 4.39771 255 255 255
57.4793 20.1274 -51.9169 255 255 255
-27.2911 44.0773 -79.713 255 255 255
7.32919 33.2444 -80.6627 255 255 255
63.8864 11.9476 -39.4894 255 255 255
56.3221 7.3082 -11.4346 255 255 255
59.8648 3.24195 -4.07048 255 255 255
59.8648 3.24195 -4.07048 255 255 255
-23.3263 38.6801 -84.7094 255 255 255
39.1351 19.4165 -62.4524 255 255 255
60.6608 1.80164 -4.89545 255 255 255
59.0062 2.22707 -7.6264 255 255 255
9.53446 23.9192 -68.094 255 255 255
6.38305 24.8156 -69.8107 255 255 255
8.86054 23.6658 -67.9346 255 255 255
7.42254 23.1664 -66.8531 255 255 255
62.7749 -2.22848 -2.21278 255 255 255
67.2143 -5.93105 7.7418 255 255 255
55.8091 1.40576 -18.2415 255 255 255
55.7737 1.39437 -18.2216 255 255 255
-19.4049 28.8393 -74.499 255 255 255
1.51454 21.9264 -65.8433 255 255 255
-8.34121 6.69772 24.8997 255 255 255
-1.18144 21.3567 -65.7082 255 255 255
62.6381 -4.9289 -4.09232 255 255 255
-0.950493 19.6814 -62.9019 255 255 255
67.886 -8.95431 6.18915 255 255 255
68.0689 -8.91734 5.95446 255 255 255
3.45669 17.8002 -60.3376 255 255 255
59.6918 -4.03843 -11.8302 255 255 255
57.289 -3.04323 -17.3285 255 255 255
-12.7357 6.04924 22.9965 255 255 255
61.9467 -6.89799 -7.30001 255 255 255
58.7155 -6.27808 -16.4177 255 255 255
-11.2679 17.6428 -59.9562 255 255 255
66.1172 -11.1877 0.1713 255 255 255
66.0376 -11.42 -0.167431 255 255 255
65.7487 -11.3709 0.2118 255 255 255
68.1433 -12.5533 3.6923 255 255 255
68.1433 -12.5533 3.6923 255 255 255
68.9648 -13.9351 5.95995 255 255 255
59.2951 -8.66736 -15.6397 255 255 255
-15.192 2.42631 26.6211 255 255 255
-16.3101 15.3098 -56.5923 255 255 255
-15.89 2.11459 26.2368 255 255 255
59.7875 -10.6389 -15.3724 255 255 255
59.3377 -10.4082 -16.558 255 255 255
68.5631 -15.9892 2.16963 255 255 255
67.1104 -15.4408 -0.959924 255 255 255
67.4375 -16.4911 -0.930583 255 255 255
-18.0597 3.57837 7.34043 255 255 255
-18.0597 3.57837 7.34043 255 255 255
67.0298 -16.855 -0.44998 255 255 255
-18.4671 3.3877 7.18099 255 255 255
-18.0759 3.28694 6.91448 255 255 255
3.47478 -7.21973 39.2731 255 255 255
-20.0886 10.5363 -50.4139 255 255 255
-22.2279 3.68597 0.912273 255 255 255
65.8478 -18.1506 -5.86208 255 255 255
-8.87919 -5.0104 36.8509 255 255 255
-20.5698 0.923422 10.4795 255 255 255
-20.8278 0.618622 10.8643 255 255 255
-1.6106 -8.12398 39.5966 255 255 255
-22.1827 0.710436 10.5513 255 255 255
-25.6498 2.49962 2.57783 255 255 255
68.5264 -21.42 -0.50564 255 255 255
-7.59231 -6.69827 38.0316 255 255 255
67.7656 -21.2284 -3.58538 255 255 255
28.4579 -14.6348 23.5078 255 255 255
-12.6574 -5.39333 34.9795 255 255 255
6.84272 -11.0679 38.3732 255 255 255
-4.20837 -8.52205 39.3402 255 255 255
4.28253 -10.867 39.1468 255 255 255
69.6812 -23.4499 0.49492 255 255 255
4.07742 -11.1386 39.6278 255 255 255
-0.318968 -10.0647 39.8524 255 255 255
-12.5453 -7.17083 36.1346 255 255 255
-28.1304 -0.452751 6.40785 255 255 255
-8.25118 -9.38157 38.674 255 255 255
-22.6492 -3.19229 15.9865 255 255 255
69.3975 -26.0635 -2.77802 255 255 255
-10.4068 -9.05929 37.5676 255 255 255
-10.0592 -9.25101 38.1537 255 255 255
-9.42213 -9.50868 38.2589 255 255 255
-23.3096 -3.66082 16.3494 255 255 255
-26.4053 -2.44805 9.2394 255 255 255
-26.6521 -2.60337 8.95944 255 255 255
-10.6637 -9.77168 37.6942 255 255 255
-10.6637 -9.77168 37.6942 255 255 255
4.32283 -14.0935 39.5782 255 255 255
4.29512 -14.703 39.4735 255 255 255
-30.2863 -3.26667 10.0806 255 255 255
-24.4472 -6.85203 20.6281 255 255 255
-21.6859 -8.21568 27.6657 255 255 255
-22.2091 -8.13321 26.3514 255 255 255
-22.8714 -7.9727 24.1979 255 255 255
-15.785 -11.3889 34.8897 255 255 255
-26.3061 -7.80465 21.7833 255 255 255
-21.7462 -10.0996 27.6806 255 255 255
-21.8003 -10.1039 27.8606 255 255 255
-15.546 -12.3497 35.065 255 255 255
2.90306 -18.0324 39.4644 255 255 255
-14.3944 -13.0216 36.0113 255 255 255
12.9273 -20.8414 38.1245 255 255 255
-30.93 -7.08703 15.2213 255 255 255
-28.9119 -7.97975 16.1913 255 255 255
-22.9847 -10.8814 26.0133 255 255 255
-13.2556 -14.3911 37.0417 255 255 255
-20.3839 -12.003 30.2734 255 255 255
3.30495 -19.4116 39.038 255 255 255
0.61026 -18.9017 39.6804 255 255 255
-13.4051 -14.8119 36.9799 255 255 255
-22.7555 -11.5261 26.704 255 255 255
-23.1895 -11.98 27.4978 255 255 255
-17.2023 -14.3524 34.395 255 255 255
-5.28357 -18.2633 39.3096 255 255 255
-27.2536 -11.3014 23.7048 255 255 255
-3.72227 -20.1417 39.1793 255 255 255
-6.72765 -19.7642 39.0142 255 255 255
-16.2649 -16.9246 34.5849 255 255 255
-34.93 -9.02394 -25.625 255 255 255
-8.07377 -20.492 38.475 255 255 255
-17.9716 -17.6624 34.7107 255 255 255
-32.7951 -12.8647 22.6377 255 255 255
3.31281 -24.2572 41.4031 255 255 255
13.0995 -27.1883 40.7934 255 255 255
-1.62693 -23.3115 41.5755 255 255 255
-15.4026 -19.2344 36.5201 255 255 255
17.5457 -29.2039 39.6637 255 255 255
-21.2925 -17.5255 34.3221 255 255 255
-16.0567 -19.3576 36.9129 255 255 255
-11.9481 -21.0243 38.9756 255 255 255
-6.72099 -22.778 40.7495 255 255 255
-33.2046 -14.5622 24.5397 255 255 255
3.02443 -25.9231 40.6313 255 255 255
-10.6852 -21.9279 39.8979 255 255 255
17.3441 -30.4591 38.793 255 255 255
3.50694 -26.3734 40.4008 255 255 255
15.3574 -30.0743 38.5608 255 255 255
-17.513 -20.289 37.2369 255 255 255
-8.18141 -23.5655 40.7682 255 255 255
-29.0325 -17.1495 27.9977 255 255 255
-20.8788 -19.8662 34.3469 255 255 255
-40.2632 -13.7544 -20.3251 255 255 255
-11.7212 -23.4678 39.5166 255 255 255
15.5084 -32.3456 36.4562 255 255 255
6.15012 -29.6815 44.4478 255 255 255
5.39506 -30.0354 44.322 255 255 255
5.73185 -30.1722 44.4097 255 255 255
13.6331 -32.8958 37.2488 255 255 255
-29.2213 -20.2904 30.9988 255 255 255
-26.191 -21.8891 34.4198 255 255 255
-22.7352 -23.6341 36.4305 255 255 255
-10.2129 -27.585 41.0684 255 255 255
-14.6826 -26.6901 39.9114 255 255 255
-2.18502 -30.6641 43.7365 255 255 255
-22.7518 -24.3383 37.4592 255 255 255
1.00261 -32.688 42.0513 255 255 255
-15.572 -27.6337 41.6314 255 255 255
0.474556 -33.2298 41.6247 255 255 255
12.9756 -37.5377 34.5612 255 255 255
-27.3426 -24.7289 31.9755 255 255 255
-0.322884 -33.3638 41.4942 255 255 255
13.771 -38.2157 33.067 255 255 255
-19.1122 -27.5579 41.5446 255 255 255
-3.16504 -32.9622 41.9539 255 255 255
0.406015 -34.3583 40.6641 255 255 255
4.64085 -36.1323 39.2487 255 255 255
-15.4071 -30.7135 39.481 255 255 255
-22.226 -28.7967 34.8189 255 255 255
-14.8317 -31.1233 39.4272 255 255 255
-15.7757 -30.9324 39.0573 255 255 255
-15.7757 -30.9324 39.0573 255 255 255
-12.3234 -33.182 39.0216 255 255 255
-12.3234 -33.182 39.0216 255 255 255
-2.82228 -36.4164 39.0329 255 255 255
-16.9054 -31.9759 37.4385 255 255 255
-30.5404 -29.1166 22.3311 255 255 255
-20.0916 -32.5677 34.4843 255 255 255
-28.0746 -30.2895 27.9251 255 255 255
-0.279282 -39.3617 36.9887 255 255 255
-0.79087 -39.4128 37.5128 255 255 255
-28.1144 -30.7974 27.6377 255 255 255
-27.699 -31.1753 26.9075 255 255 255
0.390341 -40.0716 36.9824 255 255 255
-29.9364 -30.8589 21.972 255 255 255
-13.3741 -36.0901 36.2401 255 255 255
-14.3423 -35.9115 35.6808 255 255 255
-24.201 -33.2163 29.8579 255 255 255
-24.1643 -33.221 29.7466 255 255 255
-1.52695 -40.6 36.4699 255 255 255
-55.8239 -25.6308 -5.47242 255 255 255
4.81926 -43.416 35.5354 255 255 255
-14.7185 -37.0084 34.9234 255 255 255
-20.6263 -35.428 31.4422 255 255 255
-3.40856 -41.5146 35.635 255 255 255
-11.6328 -38.8309 35.6864 255 255 255
-53.3906 -28.0069 -2.77675 255 255 255
-23.5603 -35.9102 28.8211 255 255 255
-23.6363 -35.8559 29.1317 255 255 255
-13.0501 -39.1429 34.7416 255 255 255
-3.71563 -42.8884 34.5603 255 255 255
5.97265 -47.8249 31.8205 255 255 255
-16.7886 -40.1356 31.4047 255 255 255
-26.1476 -38.0352 23.7305 255 255 255
-9.07079 -44.5482 32.557 255 255 255
-8.09993 -45.7354 32.2372 255 255 255
-4.92548 -46.9771 36.5202 255 255 255
-17.244 -43.8759 28.839 255 255 255
-30.3781 -40.7629 25.4089 255 255 255
-32.0381 -40.7518 23.9576 255 255 255
-8.80822 -48.1733 37.1165 255 255 255
-52.3081 -36.9068 9.01155 255 255 255
-21.3502 -45.4747 32.8726 255 255 255
-57.7268 -35.8833 7.45668 255 255 255
-9.54344 -50.1937 34.6093 255 255 255
-9.04067 -50.547 34.8588 255 255 255
-10.9102 -50.523 32.97 255 255 255
-21.3954 -47.5882 31.1614 255 255 255
-8.59216 -51.9098 34.7677 255 255 255
-8.85628 -52.1914 34.2849 255 255 255
-20.555 -48.8944 30.7653 255 255 255
-21.5303 -48.6616 30.1937 255 255 255
-20.8483 -48.8794 30.3884 255 255 255
-20.8483 -48.8794 30.3884 255 255 255
14.8779 -61.9783 40.9811 255 255 255
-35.3857 -47.8617 25.0037 255 255 255
9.65881 -62.615 41.7222 255 255 255
8.30364 -62.4008 41.5979 255 255 255
-13.8898 -56.1596 36.1864 255 255 255
-47.5804 -46.5629 21.3043 255 255 255
-42.2881 -49.5614 25.2426 255 255 255
7.72164 -66.2041 46.2368 255 255 255
-47.5681 -48.821 24.0048 255 255 255
-43.4885 -50.5089 25.9936 255 255 255
13.3608 -69.1295 50.2492 255 255 255
-44.5383 -50.8374 26.4895 255 255 255
-3.72347 -64.0726 43.7639 255 255 255
9.4282 -68.4503 49.6738 255 255 255
6.86967 -68.4887 49.816 255 255 255
0.342191 -66.7765 46.7747 255 255 255
7.52294 -69.2029 50.1993 255 255 255
-11.3756 -63.1891 42.4347 255 255 255
-2.92119 -66.7734 47.0134 255 255 255
-1.94693 -67.3091 47.4553 255 255 255
-4.49532 -66.8626 47.5019 255 255 255
-4.36272 -66.9958 47.2211 255 255 255
5.11707 -70.1476 51.5166 255 255 255
3.08624 -69.7886 51.039 255 255 255
-8.88813 -66.0548 46.1363 255 255 255
2.54575 -69.8707 51.1399 255 255 255
-8.61009 -66.3724 46.3631 255 255 255
-32.8606 -58.9904 37.02 255 255 255
-19.0113 -63.3836 42.9211 255 255 255
3.36876 -70.6802 52.1906 255 255 255
-4.68819 -68.1063 48.7655 255 255 255
-42.8285 -55.9785 33.2138 255 255 255
-34.9729 -58.9175 37.4041 255 255 255
-33.9982 -59.4727 38.0218 255 255 255
-33.3974 -59.8042 38.2333 255 255 255
-1.65316 -70.2509 51.4222 255 255 255
-10.3281 -67.8589 48.2907 255 255 255
-22.6427 -63.9646 43.1919 255 255 255
3.64233 -72.7059 54.7586 255 255 255
-21.9724 -67.5456 47.6564 255 255 255
-18.6657 -68.6029 49.2054 255 255 255
-28.7561 -65.7702 45.5816 255 255 255
-40.4338 -64.9756 44.206 255 255 255
-3.01569 98.3957 -54.6861 255 255 255
77.7613 110.546 -98.7195 255 255 255
75.6397 108.393 -95.9166 255 255 255
-13.6685 95.4313 -50.155 255 255 255
59.4355 68.2611 -12.1428 255 255 255
17.8779 98.2105 -68.3034 255 255 255
63.8781 63.2139 -5.16177 255 255 255
82.7265 105.508 -103.047 255 255 255
120.226 110.311 -124.427 255 255 255
120.226 110.311 -124.427 255 255 255
51.3117 100.765 -87.1743 255 255 255
64.4936 61.3956 -4.57348 255 255 255
118.03 108.434 -123.835 255 255 255
39.7227 94.1049 -83.778 255 255 255
-14.2572 87.1513 -55.2058 255 255 255
-3.80529 88.0445 -61.5699 255 255 255
-12.9073 86.168 -56.5504 255 255 255
101.628 97.8655 -120.178 255 255 255
57.5049 44.6221 18.6229 255 255 255
54.5704 92.7077 -94.9782 255 255 255
54.5704 92.7077 -94.9782 255 255 255
69.8963 94.152 -103.741 255 255 255
97.3945 96.8872 -119.372 255 255 255
71.3855 93.8151 -104.597 255 255 255
70.0168 93.4697 -104.508 255 255 255
61.3675 40.5564 24.3499 255 255 255
63.7537 37.5475 30.1487 255 255 255
64.6046 36.4968 30.3696 255 255 255
66.4004 50.7544 -5.70954 255 255 255
39.8685 88.5605 -89.5525 255 255 255
60.398 55.5266 -15.9554 255 255 255
59.6726 39.4479 21.2325 255 255 255
-16.8726 81.3664 -57.8051 255 255 255
-1.17568 82.6074 -67.8573 255 255 255
66.5019 88.2689 -106.233 255 255 255
2.51492 81.8627 -70.1445 255 255 255
56.4399 40.791 13.9859 255 255 255
72.6185 87.2166 -110.572 255 255 255
1.34635 79.7058 -65.6432 255 255 255
64.2336 48.6358 -11.8062 255 255 255
64.8062 48.0178 -10.458 255 255 255
64.8062 48.0178 -10.458 255 255 255
38.0576 83.6886 -92.6306 255 255 255
27.1037 81.7063 -85.6029 255 255 255
27.1037 81.7063 -85.6029 255 255 255
64.2781 83.9672 -106.094 255 255 255
71.9844 84.5795 -110.577 255 255 255
56.4197 83.9376 -103.367 255 255 255
60.759 35.7473 19.2495 255 255 255
68.9904 84.0772 -110.064 255 255 255
69.2979 84.2435 -110.584 255 255 255
56.8391 83.204 -103.463 255 255 255
41.9327 81.7623 -95.4123 255 255 255
4.65935 78.374 -74.1445 255 255 255
4.69108 78.3999 -74.226 255 255 255
-19.9373 76.2962 -59.2529 255 255 255
57.8128 80.6513 -104.074 255 255 255
60.3309 33.3524 18.3626 255 255 255
13.7554 76.814 -79.8645 255 255 255
32.7776 78.4843 -92.1214 255 255 255
-6.5027 75.6482 -69.0891 255 255 255
61.4683 79.6576 -108.319 255 255 255
60.1524 33.2626 17.2031 255 255 255
8.03272 75.0957 -77.5241 255 255 255
21.7823 73.6129 -87.5424 255 255 255
18.452 73.8007 -87.0519 255 255 255
25.894 73.5341 -89.8305 255 255 255
60.7443 28.601 16.1936 255 255 255
30.1887 71.0872 -92.4758 255 255 255
30.8373 70.7315 -92.8596 255 255 255
59.2489 43.3227 -30.0816 255 255 255
-3.78464 69.3736 -75.838 255 255 255
37.9065 71.0599 -101.312 255 255 255
22.2445 68.2942 -89.2511 255 255 255
34.0228 68.6431 -101.04 255 255 255
35.6423 67.7806 -101.432 255 255 255
7.03947 66.8151 -83.9077 255 255 255
5.62225 66.0393 -82.409 255 255 255
59.0224 26.2795 9.5865 255 255 255
66.6361 33.4288 -17.2232 255 255 255
33.675 66.2056 -102.263 255 255 255
-15.1897 64.2765 -70.2388 255 255 255
57.8461 26.7167 6.01939 255 255 255
59.1966 25.5042 8.68586 255 255 255
59.9767 24.8807 10.1518 255 255 255
64.6811 19.8177 19.9128 255 255 255
58.7693 24.2975 7.50559 255 255 255
60.6997 20.8669 9.84568 255 255 255
57.585 23.2321 3.40886 255 255 255
-12.8849 59.2734 -76.3316 255 255 255
-14.7533 58.8416 -75.3115 255 255 255
64.9849 27.7842 -23.1337 255 255 255
65.7526 27.4873 -23.3256 255 255 255
-19.225 57.4475 -73.5527 255 255 255
59.7662 31.8396 -37.6723 255 255 255
-9.54881 56.4401 -81.514 255 255 255
-9.54881 56.4401 -81.514 255 255 255
60.3061 17.3792 6.71848 255 255 255
56.4314 19.6448 -1.31811 255 255 255
56.3249 32.403 -47.8048 255 255 255
60.8551 15.748 6.00796 255 255 255
60.6015 15.693 6.30639 255 255 255
57.3534 17.411 -0.547121 255 255 255
57.9036 27.4838 -44.7363 255 255 255
64.8474 20.6815 -32.0217 255 255 255
63.2952 9.98931 8.41485 255 255 255
-15.6556 48.0568 -80.4553 255 255 255
63.9325 8.89662 9.21738 255 255 255
56.8744 25.1561 -50.309 255 255 255
56.7028 24.6803 -50.8921 255 255 255
57.5569 12.2619 -4.59879 255 255 255
62.6043 8.766 5.5172 255 255 255
57.8218 11.5426 -4.26961 255 255 255
65.3611 5.86354 11.6611 255 255 255
58.8911 9.63496 -3.0773 255 255 255
-6.04447 43.8272 -92.598 255 255 255
-25.0618 44.2933 -80.6847 255 255 255
11.6644 37.2676 -84.1855 255 255 255
22.861 32.7977 -79.854 255 255 255
-3.38212 40.4257 -88.8523 255 255 255
7.38369 35.1574 -82.8154 255 255 255
18.108 28.1652 -74.3443 255 255 255
64.3919 0.911972 4.84375 255 255 255
8.66539 29.1346 -73.3021 255 255 255
18.7421 26.526 -71.8068 255 255 255
67.638 -2.08038 11.4258 255 255 255
16.967 26.0592 -69.9233 255 255 255
15.7306 26.5536 -71.6536 255 255 255
62.9884 0.475545 0.919179 255 255 255
2.59071 29.6128 -76.0454 255 255 255
66.0171 -3.04875 6.15332 255 255 255
57.1782 2.68475 -13.0335 255 255 255
2.35301 26.7177 -72.1187 255 255 255
56.2254 3.18208 -15.3638 255 255 255
63.9332 -2.11233 1.46402 255 255 255
7.25972 4.1322 26.6339 255 255 255
7.54559 4.01049 26.8767 255 255 255
60.4121 -1.82115 -6.72733 255 255 255
8.15389 1.30003 31.4934 255 255 255
-1.52048 20.7676 -64.586 255 255 255
60.1296 -3.78872 -9.36614 255 255 255
68.9258 -9.7522 8.71162 255 255 255
68.1148 -9.23496 6.91279 255 255 255
11.2816 -0.951964 31.4322 255 255 255
59.5778 -5.56257 -14.8461 255 255 255
-13.9778 20.1527 -63.5204 255 255 255
-12.8894 4.52597 26.387 255 255 255
65.3758 -11.1855 -2.33278 255 255 255
2.42373 -2.25107 35.6918 255 255 255
57.6046 -6.88249 -19.8109 255 255 255
3.16564 -3.24978 36.7853 255 255 255
66.9028 -13.1603 -0.113512 255 255 255
29.4887 -6.47774 13.3509 255 255 255
65.8628 -13.3579 -2.62168 255 255 255
11.1788 -6.387 35.2405 255 255 255
67.4151 -15.3545 0.445267 255 255 255
-16.3242 1.0099 27.0796 255 255 255
-13.4061 11.7343 -52.3031 255 255 255
68.1594 -16.5635 2.11941 255 255 255
4.71286 -6.01711 37.6285 255 255 255
68.9221 -17.3729 2.70822 255 255 255
-15.0016 -1.59813 30.955 255 255 255
5.19096 -8.05248 38.4186 255 255 255
-3.09001 -6.10453 38.8779 255 255 255
69.7979 -21.0628 1.91382 255 255 255
-2.97223 -7.40793 39.3746 255 255 255
69.7262 -21.5386 2.28132 255 255 255
-6.82432 -6.97904 38.2584 255 255 255
-22.7463 -0.349687 11.9531 255 255 255
-0.947713 -9.59104 39.7682 255 255 255
-22.7238 5.50603 -45.3991 255 255 255
-14.6033 -5.75202 33.9038 255 255 255
26.6121 -16.8869 27.3986 255 255 255
10.7566 -13.6803 35.9436 255 255 255
-27.8717 -1.71913 8.85176 255 255 255
11.2357 -14.992 35.7191 255 255 255
25.5643 -18.2952 29.0822 255 255 255
-9.76895 -9.81829 38.3573 255 255 255
-19.1507 -6.7491 30.1429 255 255 255
-10.8208 -10.1271 37.9719 255 255 255
-10.6967 -10.3503 38.4325 255 255 255
12.6408 -17.018 34.8474 255 255 255
-25.9253 -0.0128945 -38.034 255 255 255
-25.9253 -0.0128945 -38.034 255 255 255
-28.1498 -4.47904 11.565 255 255 255
-27.8781 -5.00761 12.9841 255 255 255
-24.3792 -1.91137 -35.4421 255 255 255
8.44715 -17.5275 37.7344 255 255 255
22.6833 -21.3681 33.4833 255 255 255
-20.4345 -9.31868 29.933 255 255 255
7.85409 -17.8025 38.134 255 255 255
-25.3009 -7.3041 20.9628 255 255 255
-9.53966 -13.1894 38.7936 255 255 255
0.609115 -16.1157 40.4819 255 255 255
-22.0934 -8.95337 26.6246 255 255 255
-22.0818 -9.50892 27.147 255 255 255
14.3466 -20.5008 37.6317 255 255 255
-3.53575 -16.8006 40.1304 255 255 255
-17.3224 -12.7472 33.9226 255 255 255
-19.0632 -12.2893 32.1412 255 255 255
-11.0647 -15.2576 37.8429 255 255 255
-14.1782 -15.1341 35.8141 255 255 255
-24.8456 -11.5483 26.6462 255 255 255
-3.39526 -18.4915 39.6753 255 255 255
-12.7353 -15.8771 37.3159 255 255 255
-18.617 -13.972 32.8825 255 255 255
-25.2549 -12.4029 27.7358 255 255 255
-23.9666 -12.7904 28.3271 255 255 255
-18.7827 -14.5382 32.633 255 255 255
-27.5303 -11.4842 22.7204 255 255 255
-16.0285 -15.7021 34.947 255 255 255
13.6949 -26.7516 40.2519 255 255 255
-20.0118 -17.6131 34.6639 255 255 255
-30.1168 -14.6288 25.1297 255 255 255
-5.16854 -23.163 41.4854 255 255 255
-6.00787 -23.0581 41.3755 255 255 255
-33.7301 -15.0315 25.1186 255 255 255
-11.3433 -22.1675 40.2882 255 255 255
-29.5124 -16.5556 27.5809 255 255 255
-8.71312 -24.1018 40.4544 255 255 255
-31.567 -18.039 25.7149 255 255 255
-2.87013 -28.7047 42.8719 255 255 255
-30.7783 -20.2946 26.0803 255 255 255
-28.9784 -21.2989 33.8757 255 255 255
-9.0157 -28.8758 43.1009 255 255 255
-8.96136 -28.882 42.9531 255 255 255
-3.82335 -30.5517 43.7999 255 255 255
1.17957 -33.2243 41.8769 255 255 255
3.51587 -34.5247 40.584 255 255 255
-20.8748 -26.909 37.8532 255 255 255
-21.9722 -28.7591 34.9531 255 255 255
-12.777 -32.0297 39.7851 255 255 255
-16.9924 -32.2804 37.1363 255 255 255
-7.6192 -35.4742 40.9578 255 255 255
4.57978 -40.0723 36.2944 255 255 255
0.42207 -38.8261 37.3502 255 255 255
-17.648 -33.8837 35.4925 255 255 255
-0.378098 -39.553 37.4691 255 255 255
-0.407133 -39.5366 37.5248 255 255 255
-24.3218 -33.4886 30.3588 255 255 255
-55.0045 -25.9715 -5.5138 255 255 255
-24.7469 -34.3256 27.3823 255 255 255
-13.8258 -37.6785 35.2658 255 255 255
-26.8868 -35.9683 24.8529 255 255 255
-21.3298 -37.8404 29.0527 255 255 255
-6.03676 -43.7549 34.884 255 255 255
-26.9322 -37.5951 24.3614 255 255 255
-16.8321 -40.9011 31.6678 255 255 255
-50.7513 -35.414 7.07188 255 255 255
-53.0875 -35.7702 6.68692 255 255 255
-53.2687 -35.9423 7.31408 255 255 255
-9.65972 -52.0557 33.7316 255 255 255
-12.0037 -53.2344 34.7122 255 255 255
-48.6988 -42.6992 15.8696 255 255 255
-47.3863 -43.3348 17.2362 255 255 255
-53.7134 -42.5918 15.9093 255 255 255
4.17747 -61.5251 40.5146 255 255 255
-43.2626 -47.5983 22.4626 255 255 255
16.0433 -66.9509 47.4617 255 255 255
-38.9161 -50.4333 26.4326 255 255 255
-38.7499 -50.8611 26.3754 255 255 255
-48.1428 -48.3069 23.7073 255 255 255
-49.0352 -48.6801 23.7305 255 255 255
3.11799 -66.9682 47.5977 255 255 255
-32.36 -55.9507 33.5607 255 255 255
-28.3457 -59.5283 38.3928 255 255 255
-28.3457 -59.5283 38.3928 255 255 255
8.93541 -72.1086 53.8498 255 255 255
5.57732 -71.5244 53.2534 255 255 255
1.07868 -70.4069 51.6846 255 255 255
-41.973 -56.7869 34.2381 255 255 255
-11.5488 -67.2809 48.1511 255 255 255
-41.1213 -58.0353 35.8215 255 255 255
-38.2567 -60.6103 38.5288 255 255 255
-44.9548 -59.3053 37.4263 255 255 255
-24.7899 -66.5378 46.4844 255 255 255
-42.0743 -61.4563 39.8849 255 255 255
-29.2532 -66.4225 46.1318 255 255 255
-29.3191 -66.3051 46.3145 255 255 255
-30.1905 -66.1947 46.3736 255 255 255
-30.1158 -66.3273 46.1482 255 255 255
-39.5485 -64.2225 43.3491 255 255 255
41.8948 104.295 -78.5624 255 255 255
55.8723 106.363 -85.9991 255 255 255
58.6559 69.7371 -14.2142 255 255 255
58.0208 103.856 -88.9301 255 255 255
58.0208 103.856 -88.9301 255 255 255
84.0684 106.742 -102.037 255 255 255
83.6509 105.671 -103.119 255 255 255
118.995 109.693 -124.351 255 255 255
49.3261 98.6928 -87.4166 255 255 255
62.955 61.6769 -9.9702 255 255 255
70.9514 100.115 -99.7304 255 255 255
72.3983 99.9988 -101.198 255 255 255
72.5805 98.489 -101.882 255 255 255
97.7777 100.39 -116.894 255 255 255
58.5235 43.971 20.9984 255 255 255
19.5247 89.3253 -75.4012 255 255 255
91.942 96.1501 -116.538 255 255 255
74.1529 93.6219 -105.704 255 255 255
56.1895 44.7524 15.7545 255 255 255
57.7722 91.6877 -99.117 255 255 255
60.8882 56.7185 -16.9629 255 255 255
63.0342 37.4061 28.8658 255 255 255
63.0342 37.4061 28.8658 255 255 255
60.5266 89.2916 -101.613 255 255 255
77.3089 88.6014 -110.633 255 255 255
62.5882 34.9603 26.7963 255 255 255
43.8109 85.2642 -94.9561 255 255 255
57.9417 54.2888 -28.1806 255 255 255
22.2878 79.5266 -83.5914 255 255 255
-11.3475 75.9467 -65.3382 255 255 255
34.2072 75.3458 -93.6448 255 255 255
34.299 75.3924 -93.8346 255 255 255
62.0199 29.7112 20.3553 255 255 255
59.7399 45.4866 -29.0624 255 255 255
-3.21241 71.8744 -74.5679 255 255 255
39.7796 71.8849 -99.4629 255 255 255
39.5114 70.7983 -100.267 255 255 255
4.45254 69.3041 -79.639 255 255 255
62.5948 25.3412 18.2086 255 255 255
32.1068 68.9825 -98.3462 255 255 255
32.9869 68.4572 -98.4007 255 255 255
33.3766 68.7814 -99.5039 255 255 255
14.4557 65.7244 -81.7728 255 255 255
66.6839 34.2716 -16.5358 255 255 255
-1.10239 65.224 -79.3456 255 255 255
35.0946 66.3073 -103.256 255 255 255
-3.23194 63.2844 -78.5861 255 255 255
41.9317 64.6266 -107.69 255 255 255
41.9317 64.6266 -107.69 255 255 255
51.0756 62.8284 -115.233 255 255 255
-5.60723 61.1177 -78.8763 255 255 255
58.4105 23.5263 5.8734 255 255 255
63.958 16.1024 14.3016 255 255 255
53.7405 39.3855 -86.996 255 255 255
-14.6206 50.6499 -80.5853 255 255 255
56.493 16.2452 -5.69354 255 255 255
64.0637 19.9658 -35.6466 255 255 255
-2.67216 47.8402 -92.6597 255 255 255
-7.57906 44.9537 -91.3107 255 255 255
63.0657 5.60559 4.91164 255 255 255
66.7498 2.37551 11.8349 255 255 255
18.0033 29.2773 -75.2391 255 255 255
8.61924 29.1958 -75.4315 255 255 255
6.50682 27.0505 -72.4727 255 255 255
57.0071 2.65553 -11.6348 255 255 255
59.0053 1.75232 -9.1465 255 255 255
60.6475 0.207222 -5.30638 255 255 255
59.9467 0.649616 -7.0356 255 255 255
59.9584 0.588304 -7.08182 255 255 255
66.7972 -3.89499 7.33486 255 255 255
4.93891 18.3961 -62.1322 255 255 255
7.07008 1.55242 28.3834 255 255 255
56.4285 -1.93427 -18.2272 255 255 255
68.836 -9.3904 7.46128 255 255 255
7.76174 -0.298817 33.0531 255 255 255
58.0236 -5.4884 -16.1574 255 255 255
58.1 -5.48406 -16.2572 255 255 255
29.5937 -6.50632 13.1763 255 255 255
67.9671 -14.5416 4.74253 255 255 255
57.5851 -9.39937 -20.7494 255 255 255
0.987527 -4.21638 37.6241 255 255 255
11.8473 -7.13156 34.8242 255 255 255
62.7361 -14.9157 -10.1102 255 255 255
62.8401 -14.9235 -10.252 255 255 255
68.6958 -18.0249 1.98288 255 255 255
-17.739 0.102072 26.8037 255 255 255
67.9787 -18.5075 -1.26063 255 255 255
3.99247 -8.21876 38.3227 255 255 255
11.4198 -9.93785 35.8589 255 255 255
62.2005 -16.473 -13.4451 255 255 255
10.0756 -9.81722 37.112 255 255 255
-1.7206 -8.82394 39.6634 255 255 255
-11.8113 -6.3742 36.3725 255 255 255
-24.408 -0.977841 12.8817 255 255 255
-29.324 1.14671 4.80845 255 255 255
-25.0197 -0.849012 7.01967 255 255 255
-27.2917 5.06166 -44.696 255 255 255
-22.2023 -4.3451 23.4376 255 255 255
0.991303 -13.7501 40.2471 255 255 255
-11.1449 -11.0585 37.9472 255 255 255
-24.331 -5.84179 19.2923 255 255 255
12.5061 -17.4329 34.7285 255 255 255
-13.9956 -10.5247 36.2546 255 255 255
-22.4385 -8.48838 26.0986 255 255 255
54.6769 -27.821 -2.52185 255 255 255
-4.2821 -15.5687 40.1957 255 255 255
-30.0452 -7.05646 15.0161 255 255 255
-21.1294 -11.9001 29.467 255 255 255
-4.93506 -17.2019 39.7784 255 255 255
52.5981 -31.0169 -0.78435 255 255 255
-15.202 -14.2036 35.3952 255 255 255
19.6175 -24.4106 36.6847 255 255 255
-24.2385 -11.7073 27.3886 255 255 255
11.1242 -22.6509 38.9058 255 255 255
-23.8471 -12.4181 28.1052 255 255 255
-5.41292 -19.4809 39.3111 255 255 255
-17.6251 -16.7725 33.5072 255 255 255
-14.772 -18.0311 35.1968 255 255 255
-21.2445 -16.6215 33.1944 255 255 255
15.9137 -28.2667 39.3986 255 255 255
-10.9721 -23.1519 40.0206 255 255 255
-3.06434 -25.5885 41.0287 255 255 255
1.14896 -28.3744 42.3387 255 255 255
-33.0198 -19.0407 21.5087 255 255 255
-30.598 -20.0968 27.154 255 255 255
-28.4438 -21.4289 33.4359 255 255 255
-12.4467 -27.0185 40.8702 255 255 255
-15.675 -26.9248 40.58 255 255 255
13.0539 -37.1594 34.3805 255 255 255
-22.0992 -25.9786 37.2049 255 255 255
-27.5542 -25.5389 30.7999 255 255 255
12.7447 -39.8688 32.9307 255 255 255
13.0983 -39.971 32.2587 255 255 255
-19.1072 -32.835 35.3317 255 255 255
-7.62216 -36.5345 40.2732 255 255 255
-22.0774 -32.3954 32.1035 255 255 255
-26.2534 -31.5874 27.7903 255 255 255
-29.6135 -31.3256 21.1484 255 255 255
0.430796 -40.7538 36.4336 255 255 255
0.430796 -40.7538 36.4336 255 255 255
-2.06692 -40.1351 35.8767 255 255 255
-2.60263 -40.6104 36.1447 255 255 255
-2.60263 -40.6104 36.1447 255 255 255
5.67755 -43.8203 34.8854 255 255 255
-23.6792 -35.0949 29.6541 255 255 255
-15.1727 -39.3686 32.7726 255 255 255
-52.6826 -30.2874 0.521754 255 255 255
-52.7039 -30.2419 0.853715 255 255 255
-50.5066 -38.2167 10.8266 255 255 255
-9.69765 -51.1388 33.812 255 255 255
-7.9936 -52.3428 34.2676 255 255 255
6.50317 -60.937 39.6999 255 255 255
-43.5708 -47.8449 22.8334 255 255 255
-40.3832 -52.5609 29.197 255 255 255
-1.27181 -65.0393 44.8237 255 255 255
-0.329354 -69.1987 50.127 255 255 255
-36.109 -58.5636 36.4775 255 255 255
-35.6573 -58.9969 37.0624 255 255 255
-31.1002 -67.2095 47.9919 255 255 255
-39.2525 -65.116 44.643 255 255 255
64.4364 69.367 -5.71929 255 255 255
102.203 113.515 -110.164 255 255 255
31.4672 102.898 -73.3216 255 255 255
31.4672 102.898 -73.3216 255 255 255
78.9881 107.994 -97.8767 255 255 255
57.0907 71.5609 -16.6051 255 255 255
54.918 104.354 -87.4878 255 255 255
1.01045 95.2355 -59.0894 255 255 255
58.9361 67.536 -15.3553 255 255 255
61.7946 49.5593 21.6729 255 255 255
-6.78783 90.0836 -57.1969 255 255 255
70.2506 98.3236 -102.146 255 255 255
69.5403 97.7917 -100.693 255 255 255
-4.63359 83.6962 -64.1397 255 255 255
18.2861 84.988 -76.4576 255 255 255
76.2616 89.9393 -110.167 255 255 255
59.7627 38.0806 20.2836 255 255 255
44.2852 83.3613 -95.4985 255 255 255
59.3658 79.9747 -104 255 255 255
59.576 80.067 -104.371 255 255 255
34.5594 78.4493 -92.4189 255 255 255
44.7501 78.6244 -98.4807 255 255 255
52.682 76.8979 -101.611 255 255 255
61.6309 29.3431 19.3023 255 255 255
3.45094 72.3305 -76.4341 255 255 255
3.5171 72.406 -76.6782 255 255 255
10.8476 67.4933 -83.6076 255 255 255
61.1212 25.1916 14.4398 255 255 255
61.1212 25.1916 14.4398 255 255 255
-16.2262 65.26 -69.495 255 255 255
56.0508 28.529 2.37655 255 255 255
63.305 34.1531 -26.3826 255 255 255
57.7596 37.718 -36.0101 255 255 255
75.8415 55.7633 -105.251 255 255 255
76.7607 55.4954 -108.469 255 255 255
59.728 22.3243 8.91148 255 255 255
-10.6956 59.7566 -77.2547 255 255 255
-15.7031 59.4634 -74.2725 255 255 255
65.2463 28.5495 -24.4692 255 255 255
57.1693 32.0025 -45.9218 255 255 255
60.0715 27.5292 -40.7074 255 255 255
59.3479 27.5933 -42.5314 255 255 255
57.747 16.8658 -2.07154 255 255 255
62.09 22.1659 -38.5014 255 255 255
63.2611 17.6808 -37.1413 255 255 255
63.8793 16.1798 -38.0897 255 255 255
61.092 8.2051 -3.79774 255 255 255
59.8397 18.514 -47.5215 255 255 255
63.3903 15.3087 -38.6851 255 255 255
60.4134 17.2451 -46.0395 255 255 255
60.1672 17.0492 -47.3009 255 255 255
-23.98 42.1918 -82.199 255 255 255
34.4354 27.5635 -73.0197 255 255 255
60.6449 5.62904 -1.57528 255 255 255
-12.717 40.9696 -89.2694 255 255 255
19.798 26.2006 -72.9408 255 255 255
68.3422 -2.28182 11.1832 255 255 255
13.7717 25.1293 -70.055 255 255 255
9.46754 21.6689 -65.2327 255 255 255
59.135 -1.46962 -11.4144 255 255 255
68.8647 -8.72421 9.16773 255 255 255
63.6014 -8.77749 -4.18476 255 255 255
67.3424 -13.262 0.997795 255 255 255
-11.4896 -1.16457 33.212 255 255 255
68.2487 -17.4015 0.993442 255 255 255
-3.12476 -4.8363 37.8681 255 255 255
67.1265 -18.1735 -2.50971 255 255 255
-19.9555 0.242445 22.8553 255 255 255
62.6069 -17.0884 -12.3431 255 255 255
-22.741 8.66434 -48.9409 255 255 255
68.3043 -21.3494 -0.303625 255 255 255
-2.24303 -9.21773 39.7455 255 255 255
69.5549 -23.5793 -0.577792 255 255 255
-29.6696 6.2056 -46.0299 255 255 255
-2.64162 -12.3335 40.2258 255 255 255
-24.9259 0.353027 -38.7718 255 255 255
-16.3322 -11.4724 34.9944 255 255 255
-23.2932 -10.6422 25.5664 255 255 255
-12.8501 -14.4506 37.1533 255 255 255
0.679854 -18.5994 39.6138 255 255 255
-17.768 -13.4402 33.5851 255 255 255
-4.94949 -17.9792 39.2888 255 255 255
-8.90224 -17.0105 38.936 255 255 255
-21.8927 -14.7286 31.1143 255 255 255
-20.8022 -15.2891 31.4264 255 255 255
-11.0177 -18.5246 37.7178 255 255 255
-19.996 -16.4883 33.0845 255 255 255
-4.74383 -22.8093 41.3122 255 255 255
-10.2265 -21.3962 39.0591 255 255 255
-16.9228 -19.4407 36.876 255 255 255
-22.3237 -22.0564 34.0316 255 255 255
-22.9721 -22.2804 34.7049 255 255 255
-22.9721 -22.2804 34.7049 255 255 255
11.5922 -39.536 33.8086 255 255 255
13.8602 -40.6553 31.5857 255 255 255
9.8844 -39.5058 34.5349 255 255 255
-13.2886 -32.2208 39.0364 255 255 255
-7.44441 -37.6723 38.0663 255 255 255
-22.4651 -35.6225 30.2612 255 255 255
2.61294 -44.2139 33.4822 255 255 255
6.13967 -47.2997 36.5898 255 255 255
-49.0366 -31.5621 2.10741 255 255 255
-7.75725 -43.7131 35.2221 255 255 255
-55.3142 -33.2792 3.95867 255 255 255
-19.9143 -43.9741 29.6331 255 255 255
-50.6982 -36.3105 6.75061 255 255 255
-55.7971 -36.1874 7.79242 255 255 255
-48.5426 -41.6171 15.2316 255 255 255
-42.0618 -46.9992 21.8533 255 255 255
-50.1226 -45.3888 19.5526 255 255 255
-45.3719 -47.3727 21.9789 255 255 255
-49.1388 -48.7876 24.0161 255 255 255
-31.9058 -54.7398 32.0155 255 255 255
-43.4677 -52.4882 28.9806 255 255 255
-35.1348 -55.6317 33.0408 255 255 255
6.35067 -71.1274 52.9604 255 255 255
-39.9005 -59.6096 38.3663 255 255 255
-42.2727 -62.0453 40.8203 255 255 255
-30.6863 -65.7938 46.1354 255 255 255
-31.2335 -66.2751 45.8303 255 255 255
-40.5908 -63.8648 43.0859 255 255 255
-31.4335 -66.7931 47.2409 255 255 255
-39.9153 -64.6486 44.0163 255 255 255
57.924 71.6637 -14.6628 255 255 255
82.6035 105.177 -107.312 255 255 255
57.6253 50.3426 19.6474 255 255 255
-1.29893 92.9315 -59.5062 255 255 255
75.8929 99.1623 -103.463 255 255 255
65.915 42.4628 29.0243 255 255 255
63.5674 39.1466 32.0704 255 255 255
61.6925 58.9352 -14.3524 255 255 255
88.343 96.596 -113.563 255 255 255
84.4365 88.4695 -116.881 255 255 255
-17.5221 79.4671 -58.9563 255 255 255
92.7606 87.3165 -122.355 255 255 255
92.9296 87.3839 -122.662 255 255 255
54.4181 77.4615 -102.955 255 255 255
60.5339 28.5767 14.9754 255 255 255
-5.84387 69.7908 -74.0309 255 255 255
29.3661 68.6642 -93.0149 255 255 255
29.7626 68.9207 -94.2587 255 255 255
59.6868 25.5516 10.818 255 255 255
-4.65625 63.4162 -79.3932 255 255 255
65.5611 29.6394 -22.6694 255 255 255
65.4855 29.642 -22.5778 255 255 255
-11.9716 54.4706 -81.0992 255 255 255
60.9043 27.0519 -38.1366 255 255 255
60.2824 11.8024 2.12274 255 255 255
62.0857 19.5353 -39.6283 255 255 255
66.8864 1.06738 11.0788 255 255 255
62.9467 12.8363 -42.5742 255 255 255
7.7199 29.935 -76.1386 255 255 255
16.9475 20.6355 -63.6561 255 255 255
59.9763 -4.78063 -11.2711 255 255 255
61.0583 -6.64971 -9.83601 255 255 255
6.26629 -2.12677 34.6994 255 255 255
5.85844 -2.27539 33.9726 255 255 255
62.7 -11.3183 -8.91398 255 255 255
3.40807 -5.18761 37.7739 255 255 255
66.4866 -14.8781 -2.13053 255 255 255
-7.14767 -2.97296 36.1723 255 255 255
69.9652 -19.9214 1.18777 255 255 255
1.65055 -8.62211 39.1831 255 255 255
-22.5218 6.45695 -46.0005 255 255 255
6.50566 -13.4405 38.2881 255 255 255
-12.2819 -8.36291 36.5203 255 255 255
3.88494 -13.8444 39.6491 255 255 255
1.3656 -15.3202 39.7565 255 255 255
-25.2149 -7.07012 20.8462 255 255 255
-25.3575 -10.9643 25.6878 255 255 255
-28.0924 -9.93718 19.3112 255 255 255
-28.0924 -9.93718 19.3112 255 255 255
0.982941 -19.5824 39.4848 255 255 255
0.982941 -19.5824 39.4848 255 255 255
-22.2278 -12.8207 28.5136 255 255 255
-20.4902 -14.0576 30.8181 255 255 255
-21.4466 -13.7367 29.8939 255 255 255
-16.1347 -16.0003 34.8299 255 255 255
-1.31393 -20.7438 39.0225 255 255 255
-21.9703 -17.3132 33.877 255 255 255
-15.7989 -19.2011 36.4833 255 255 255
-3.66035 -24.2416 41.6814 255 255 255
13.886 -30.3933 39.0518 255 255 255
-20.1444 -21.6797 34.7663 255 255 255
6.53554 -30.6661 43.9386 255 255 255
-30.8042 -19.3974 27.1461 255 255 255
-18.2404 -23.5357 36.309 255 255 255
-9.92959 -26.8574 39.0213 255 255 255
5.1818 -32.9734 41.8942 255 255 255
-27.5091 -23.6595 32.6954 255 255 255
5.06502 -38.1018 36.6511 255 255 255
13.0202 -41.9338 30.8386 255 255 255
-51.3347 -27.4765 -3.59638 255 255 255
-51.3218 -27.5534 -3.71287 255 255 255
-14.5406 -40.2198 31.9802 255 255 255
-54.3688 -29.8604 0.0833111 255 255 255
-16.6333 -43.4933 29.6432 255 255 255
-41.7979 -47.7115 22.447 255 255 255
-46.9642 -47.0042 20.8585 255 255 255
12.5844 -67.5998 48.4417 255 255 255
-12.0821 -63.3299 42.5555 255 255 255
8.94419 -71.2899 53.1994 255 255 255
-10.8346 -66.5489 47.0428 255 255 255
-8.12419 -70.8513 53.4331 255 255 255
-34.2123 -65.1204 44.5175 255 255 255
61.3353 61.0093 -11.761 255 255 255
90.7807 96.1313 -115.482 255 255 255
-22.8785 63.0326 -66.2602 255 255 255
60.6381 31.8379 -35.006 255 255 255
-8.31098 54.2033 -83.5235 255 255 255
20.9985 27.3082 -73.3009 255 255 255
-4.56407 -9.89692 39.3944 255 255 255
-22.633 -3.42228 20.2778 255 255 255
-22.3961 -7.46481 26.4291 255 255 255
-17.2262 -9.87849 33.6286 255 255 255
-15.4781 -12.904 35.5717 255 255 255
-14.1041 -18.2202 36.3659 255 255 255
5.33813 -28.4546 43.0163 255 255 255
1.01526 -27.6797 44.3764 255 255 255
-17.7079 -23.9155 36.6393 255 255 255
-22.882 -22.8402 34.9005 255 255 255
5.10134 -33.9727 39.8367 255 255 255
-11.5162 -35.6674 37.6092 255 255 255
-30.076 -32.7359 20.512 255 255 255
-26.2134 -35.585 24.978 255 255 255
-47.2024 -42.748 16.2677 255 255 255
-52.4195 -42.4991 15.8294 255 255 255
-29.991 -55.9324 33.1394 255 255 255
-42.4095 -53.4896 30.4264 255 255 255
-15.9901 59.4968 -75.2611 255 255 255
-18.3249 55.0605 -73.7152 255 255 255
56.7107 20.0842 -4.12412 255 255 255
61.175 9.66189 1.35005 255 255 255
60.2374 8.4398 0.777184 255 255 255
-3.07525 7.7072 22.4569 255 255 255
-24.0125 3.08073 2.33048 255 255 255
-25.7815 1.97652 3.38138 255 255 255
-24.9131 1.23876 4.34463 255 255 255
-5.7119 -8.66507 39.3706 255 255 255
-12.5156 -14.6328 39.1918 255 255 255
0.29717 -23.9081 41.7315 255 255 255
-4.84899 -23.9083 41.8543 255 255 255
-9.0665 -23.1051 40.6731 255 255 255
-17.3466 -23.2124 37.1418 255 255 255
1.61835 -29.5587 43.6404 255 255 255
-16.1879 -24.9333 37.517 255 255 255
17.2538 -39.4097 31.7078 255 255 255
14.8042 -39.2894 31.4606 255 255 255
14.8042 -39.2894 31.4606 255 255 255
0.275955 -39.3444 37.339 255 255 255
4.53851 -42.3242 35.0254 255 255 255
4.88215 -42.5069 34.2753 255 255 255
-29.7555 -33.8036 20.7697 255 255 255
4.60979 -44.6378 33.966 255 255 255
-27.3773 -35.0717 24.4153 255 255 255
-51.8616 -40.4121 13.4705 255 255 255
-53.1554 -41.1727 14.4301 255 255 255
-37.7121 -48.3222 25.2428 255 255 255
-43.8142 -47.007 22.0766 255 255 255
9.98516 -67.5244 47.5687 255 255 255
11.3321 -69.2863 50.4578 255 255 255
56.5619 68.4735 -18.745 255 255 255
83.5008 100.759 -107.723 255 255 255
28.9855 88.7329 -82.713 255 255 255
66.9064 47.32 -14.9615 255 255 255
35.5539 73.2343 -93.8181 255 255 255
62.5366 14.1229 10.0503 255 255 255
59.7123 11.4157 -0.182697 255 255 255
19.43 29.1606 -74.7791 255 255 255
-21.42 2.8301 5.8638 255 255 255
-6.76071 -13.3573 39.8119 255 255 255
0.0147682 -22.8383 41.1401 255 255 255
-50.0817 -30.4111 1.07158 255 255 255
-30.885 -36.9768 24.0213 255 255 255
-36.2332 -52.6716 28.4332 255 255 255
-46.9378 -50.0311 25.5551 255 255 255
33.2473 101.764 -76.232 255 255 255
15.7948 27.027 -72.0317 255 255 255
-9.5068 -8.36927 38.2193 255 255 255
4.53305 -31.0053 43.9576 255 255 255
2.69509 -41.4777 35.4889 255 255 255
-24.0049 -33.4758 28.9283 255 255 255
-49.9491 -41.8027 14.7398 255 255 255
-49.9491 -41.8027 14.7398 255 255 255
-50.4298 -43.2601 17.6019 255 255 255
77.8115 101.133 -102.595 255 255 255
18.4728 94.1192 -72.3318 255 255 255
60.4267 58.7732 -16.2639 255 255 255
65.2336 50.0942 -18.9908 255 255 255
-24.3477 1.12423 8.24452 255 255 255
-11.9377 -11.1859 36.9553 255 255 255
16.2007 -19.3301 39.3982 255 255 255
-1.41127 -31.1921 44.0241 255 255 255
-18.3827 -26.7452 40.8417 255 255 255
-37.1032 -54.3028 30.5434 255 255 255
49.819 72.1856 -107.556 255 255 255
49.819 72.1856 -107.556 255 255 255
-2.62681 61.9167 -83.2205 255 255 255
-14.8377 -9.21712 34.9486 255 255 255
4.35889 -23.7887 49.3612 255 255 255
-6.56084 -29.3028 43.5669 255 255 255
-13.4818 -24.2216 37.1318 255 255 255
-13.4818 -24.2216 37.1318 255 255 255
-3.82683 66.4476 -78.6724 255 255 255
-40.1359 63.0841 -56.4107 255 255 255
-15.3009 64.5278 -73.0741 255 255 255
-65.0845 60.9733 -42.857 255 255 255
-39.1079 61.9504 -58.0332 255 255 255
-28.3123 62.7904 -65.5289 255 255 255
-28.3123 62.7904 -65.5289 255 255 255
-24.7848 62.2021 -67.5741 255 255 255
59.1363 39.6399 -32.5348 255 255 255
-29.0695 58.8237 -67.7597 255 255 255
56.5508 28.5562 5.17868 255 255 255
64.6439 34.2825 -20.2883 255 255 255
-36.2324 56.5295 -64.1093 255 255 255
-53.4935 53.7293 -53.5589 255 255 255
63.3021 21.4273 18.469 255 255 255
-49.0913 53.2176 -57.5136 255 255 255
-36.8854 53.5653 -65.5108 255 255 255
-25.4498 53.1595 -70.7021 255 255 255
59.816 23.1673 9.40444 255 255 255
-1.96715 54.4698 -87.8068 255 255 255
58.015 35.0155 -38.7323 255 255 255
-53.0456 52.586 -56.1301 255 255 255
11.7424 53.2383 -98.2976 255 255 255
12.3319 52.713 -99.0364 255 255 255
64.7915 28.2939 -25.7094 255 255 255
-43.9664 49.8874 -64.3425 255 255 255
-25.1651 49.4229 -76.487 255 255 255
-52.3342 47.4433 -59.0655 255 255 255
-52.3342 47.4433 -59.0655 255 255 255
-24.769 47.9988 -78.0255 255 255 255
-68.7232 47.4613 -49.5273 255 255 255
-44.5344 47.2979 -64.1308 255 255 255
-25.9504 47.6906 -77.5472 255 255 255
-60.9308 46.8825 -53.708 255 255 255
-48.8762 46.8522 -61.4514 255 255 255
-55.5193 46.8015 -57.0555 255 255 255
-67.0256 46.9971 -51.8551 255 255 255
-68.114 46.775 -50.8162 255 255 255
-58.7921 46.6977 -56.1957 255 255 255
-56.1424 46.2759 -57.4179 255 255 255
-85.0933 46.7496 -41.211 255 255 255
-54.3151 45.4071 -59.3219 255 255 255
14.7616 43.5832 -93.5977 255 255 255
13.7927 43.0521 -91.8049 255 255 255
63.7804 24.0761 -32.0655 255 255 255
-62.6432 44.5058 -54.9098 255 255 255
-54.557 43.7218 -58.3657 255 255 255
-46.7429 44.4615 -67.8179 255 255 255
-57.337 44.2081 -59.2563 255 255 255
61.2476 24.2374 -38.1937 255 255 255
61.2476 24.2374 -38.1937 255 255 255
-51.7724 43.3927 -62.8495 255 255 255
-52.7222 43.6146 -63.5043 255 255 255
-70.2196 43.6964 -52.066 255 255 255
21.3179 38.308 -86.4321 255 255 255
-58.8817 43.4507 -59.3418 255 255 255
-66.6774 43.4194 -53.9546 255 255 255
-25.0511 42.7118 -80.981 255 255 255
-80.3436 43.5156 -46.8475 255 255 255
1.70739 40.5369 -88.9634 255 255 255
-53.475 42.0502 -62.3464 255 255 255
59.5582 28.941 -73.1318 255 255 255
-5.79019 39.5895 -87.0471 255 255 255
60.5916 22.308 -40.678 255 255 255
64.2462 20.201 -33.0449 255 255 255
-74.3329 41.8941 -50.9068 255 255 255
-57.6737 41.4967 -61.564 255 255 255
-25.1605 40.8141 -83.0088 255 255 255
-78.1481 41.2996 -49.3801 255 255 255
-78.1481 41.2996 -49.3801 255 255 255
-43.5895 39.6735 -69.4953 255 255 255
-76.3606 40.3565 -48.8921 255 255 255
1.50596 35.0677 -80.1463 255 255 255
-4.52075 36.5268 -83.8391 255 255 255
-49.0083 27.1353 -17.3038 255 255 255
-57.0011 39.8059 -63.6141 255 255 255
7.74418 34.1087 -82.692 255 255 255
-36.2735 38.5551 -75.8808 255 255 255
-1.90684 34.7312 -82.2043 255 255 255
-41.8001 38.7478 -74.0121 255 255 255
5.90092 32.5592 -78.6432 255 255 255
57.9201 12.4689 -3.54325 255 255 255
2.99533 33.1426 -80.8428 255 255 255
3.02652 33.1754 -80.897 255 255 255
1.42814 32.3133 -78.2743 255 255 255
0.531422 32.2567 -78.3381 255 255 255
62.7027 16.9225 -36.4155 255 255 255
61.1657 10.2247 2.94262 255 255 255
61.1657 10.2247 2.94262 255 255 255
-12.3707 34.2961 -81.4211 255 255 255
-13.1571 33.8593 -80.8195 255 255 255
-76.5213 36.7541 -48.5536 255 255 255
-25.0491 34.7738 -81.282 255 255 255
-72.943 36.7996 -54.4038 255 255 255
-72.943 36.7996 -54.4038 255 255 255
-71.1682 36.8303 -56.3203 255 255 255
-55.6881 36.0994 -65.8736 255 255 255
-16.8306 32.789 -79.7659 255 255 255
-4.00583 30.5094 -76.9279 255 255 255
-16.8871 32.2143 -79.0679 255 255 255
-27.1851 33.8614 -80.4714 255 255 255
-27.1829 33.8407 -80.4114 255 255 255
-9.51209 30.3979 -75.2311 255 255 255
-69.2813 35.91 -57.5012 255 255 255
-49.1702 34.9146 -73.799 255 255 255
-49.4768 34.6766 -72.3908 255 255 255
-27.1115 32.0241 -78.4519 255 255 255
-70.7218 34.8216 -58.5746 255 255 255
30.6732 20.9554 -64.2304 255 255 255
-58.8425 33.5665 -66.2244 255 255 255
70.8479 2.10679 23.5301 255 255 255
70.8999 2.23265 20.6363 255 255 255
-43.6247 32.3074 -77.9808 255 255 255
-56.7204 32.8594 -69.803 255 255 255
-25.696 29.0181 -74.7198 255 255 255
-20.8076 28.1296 -74.4121 255 255 255
-81.5634 34.7425 -59.8822 255 255 255
4.45127 22.769 -67.3039 255 255 255
-48.6019 31.6704 -74.8475 255 255 255
-27.9951 28.6177 -74.8812 255 255 255
-71.2416 32.6797 -58.8063 255 255 255
-58.2907 31.9795 -69.0818 255 255 255
-55.3956 31.6901 -70.2692 255 255 255
-68.6991 32.3649 -61.3179 255 255 255
-49.4698 31.2901 -75.3928 255 255 255
-56.5896 31.2129 -68.2051 255 255 255
-56.5896 31.2129 -68.2051 255 255 255
-16.7999 25.4081 -70.2723 255 255 255
-79.6373 33.0622 -58.4844 255 255 255
-66.7903 31.4138 -62.0651 255 255 255
-86.0663 32.69 -50.8786 255 255 255
40.05 15.0143 -56.9135 255 255 255
63.4373 9.96496 -43.2389 255 255 255
67.9215 1.68086 12.8696 255 255 255
-36.5324 27.9891 -73.2328 255 255 255
-36.5324 27.9891 -73.2328 255 255 255
67.8691 1.21849 15.7603 255 255 255
-40.5456 28.6912 -74.7452 255 255 255
-13.6987 23.5759 -67.0913 255 255 255
-55.8434 30.3638 -72.0228 255 255 255
5.02199 19.7882 -62.1104 255 255 255
-32.2618 26.6727 -72.9068 255 255 255
-66.8464 30.491 -63.2357 255 255 255
-66.9525 30.6245 -63.9004 255 255 255
-34.0175 26.751 -72.5507 255 255 255
-14.8167 23.0915 -66.8708 255 255 255
-64.829 30.5478 -66.553 255 255 255
-91.3551 31.9734 -47.7503 255 255 255
-64.2968 30.3482 -67.1442 255 255 255
-63.9498 30.0143 -64.4991 255 255 255
67.2474 1.17132 11.5875 255 255 255
-70.5536 30.4064 -61.185 255 255 255
-62.0674 29.8775 -68.2603 255 255 255
-61.8036 29.5915 -66.0421 255 255 255
-81.486 31.5717 -60.3017 255 255 255
-66.8079 29.9489 -65.5 255 255 255
-58.9712 29.0677 -67.9111 255 255 255
-41.1568 26.9095 -72.4932 255 255 255
-30.6879 24.8584 -69.4262 255 255 255
69.4225 -0.747016 19.7856 255 255 255
-62.3595 29.5695 -68.7306 255 255 255
-61.6779 29.4086 -69.2094 255 255 255
-64.6172 29.4178 -67.3104 255 255 255
66.5824 0.340172 10.8584 255 255 255
-65.8474 29.2881 -66.9323 255 255 255
-60.321 28.9356 -70.4203 255 255 255
-56.2042 28.3012 -70.7563 255 255 255
2.27092 18.0272 -60.5678 255 255 255
-84.4786 30.1497 -53.5398 255 255 255
-85.2259 30.1365 -53.2656 255 255 255
-59.4614 28.4704 -71.3211 255 255 255
-88.7462 30.0739 -48.921 255 255 255
-79.7793 30.0851 -59.8312 255 255 255
-62.1855 28.4934 -69.8725 255 255 255
-65.8584 28.6168 -66.888 255 255 255
-65.8584 28.6168 -66.888 255 255 255
68.0098 -1.11367 14.0882 255 255 255
-67.0357 28.07 -64.3353 255 255 255
-40.3418 24.1965 -68.5769 255 255 255
-18.8937 20.1782 -63.1848 255 255 255
-24.5495 20.6863 -62.8043 255 255 255
55.3731 7.01252 -46.2231 255 255 255
70.927 -3.0414 20.6665 255 255 255
-60.3846 26.3382 -68.238 255 255 255
-9.38244 6.65059 23.7361 255 255 255
-86.9232 28.3147 -53.6575 255 255 255
-81.5226 28.5264 -62.3053 255 255 255
-67.5778 26.7412 -67.2372 255 255 255
-60.2855 25.9673 -72.568 255 255 255
70.1868 -3.20362 15.5674 255 255 255
-70.2896 26.1922 -64.3464 255 255 255
-5.82914 15.203 -55.8671 255 255 255
-89.819 27.5645 -51.1054 255 255 255
-86.9381 27.4533 -54.5536 255 255 255
-60.4621 25.0577 -69.8699 255 255 255
-24.6906 17.8474 -59.2037 255 255 255
-99.4977 29.3259 -58.1516 255 255 255
-89.1693 27.1514 -53.0505 255 255 255
-85.5786 26.5416 -54.461 255 255 255
-68.0062 25.2818 -68.2107 255 255 255
-89.1317 26.6351 -53.425 255 255 255
-69.4777 24.6593 -65.9031 255 255 255
-36.1409 18.2865 -59.9709 255 255 255
-36.1409 18.2865 -59.9709 255 255 255
